ply
format ascii 1.0
comment VCGLIB generated
obj_info Generated by CloudCompare!
element vertex 1126
property float x
property float y
property float z
property uchar red
property uchar green
property uchar blue
end_header
199.644897 -53.928604 160.985535 0 46 255 
243.644897 -12.928604 202.585388 0 153 255 
281.644897 0.071396 203.885391 0 66 255 
267.644897 -32.928604 146.685593 0 122 255 
263.644897 -18.928604 196.085419 0 79 255 
205.644897 -56.928604 172.685501 255 4 0 
203.644897 -32.928604 189.585449 255 22 0 
284.644897 -67.928604 216.885345 110 0 73 
193.644897 -18.928604 257.185211 0 28 255 
244.644897 13.071396 238.985260 0 133 255 
234.644897 -53.928604 170.085510 10 0 123 
159.644897 -14.928604 159.685547 0 171 255 
242.644897 -14.928604 192.185425 0 166 255 
248.644897 27.071396 160.985535 0 22 255 
207.644897 -75.928604 186.985443 130 0 63 
276.644897 -10.928604 218.185333 255 2 0 
307.644897 3.071396 179.185486 130 0 63 
150.644897 -26.928604 166.185516 0 33 255 
252.644897 -60.928604 185.685455 255 2 0 
291.644897 -3.928604 236.385284 0 11 255 
254.644897 23.071396 194.785431 0 15 255 
210.644897 -31.928604 137.585632 0 77 255 
275.644897 -6.928604 158.385559 0 8 255 
236.644897 -8.928604 167.485519 130 0 63 
218.644897 -79.928604 177.885483 0 115 255 
185.644897 -31.928604 189.585449 0 0 133 
263.644897 -30.928604 150.585571 0 8 255 
176.644897 -15.928604 212.985352 255 4 0 
153.644897 -56.928604 218.185333 0 79 255 
292.644897 -36.928604 225.985321 255 2 0 
144.644897 -17.928604 214.285355 0 0 213 
249.644897 -28.928604 146.685593 255 4 0 
199.644897 -38.928604 216.885345 0 0 153 
270.644897 5.071396 162.285538 0 95 255 
260.644897 -4.928604 177.885483 0 33 255 
181.644897 5.071396 164.885529 0 22 255 
260.644897 -53.928604 162.285538 0 4 255 
135.644897 -25.928604 190.885437 0 4 255 
221.644897 -38.928604 266.285156 0 33 255 
270.644897 -43.928604 151.885574 170 0 43 
204.644897 -59.928604 248.085236 0 0 233 
240.644897 30.071396 186.985443 0 42 255 
187.644897 -54.928604 151.885574 0 39 255 
229.644897 -15.928604 216.885345 0 0 133 
263.644897 -52.928604 228.585297 255 35 0 
233.644897 -13.928604 159.685547 255 4 0 
231.644897 -53.928604 185.685455 255 15 0 
155.644897 -30.928604 160.985535 0 11 255 
194.644897 13.071396 244.185242 0 108 255 
214.644897 -52.928604 205.185394 0 11 255 
219.644897 -6.928604 242.885254 130 0 63 
260.644897 -15.928604 210.385376 0 8 255 
204.644897 -50.928604 209.085373 0 0 153 
283.644897 -12.928604 206.485382 255 2 0 
277.644897 -52.928604 245.485245 0 0 213 
235.644897 -31.928604 248.085236 170 0 43 
233.644897 -2.928604 175.285492 0 33 255 
212.644897 12.071396 258.485199 0 122 255 
201.644897 -43.928604 150.585571 0 15 255 
218.644897 -60.928604 150.585571 0 0 213 
217.644897 -12.928604 205.185394 0 15 255 
267.644897 21.071396 184.385468 0 11 255 
212.644897 -32.928604 268.885162 0 133 255 
209.644897 -52.928604 172.685501 255 11 0 
291.644897 -24.928604 192.185425 0 0 213 
189.644897 -67.928604 233.785278 0 104 255 
294.644897 -34.928604 193.485428 0 0 233 
173.644897 -18.928604 233.785278 110 0 73 
213.644897 -72.928604 229.885300 255 4 0 
277.644897 -32.928604 155.785553 0 28 255 
191.644897 -44.928604 211.685364 255 2 0 
254.644897 -77.928604 206.485382 0 0 163 
229.644897 -72.928604 219.485336 70 0 93 
218.644897 -42.928604 147.985596 0 4 255 
265.644897 -49.928604 170.085510 0 11 255 
251.644897 18.071396 235.085281 50 0 103 
221.644897 -25.928604 223.385315 255 4 0 
192.644897 -66.928604 218.185333 210 0 23 
302.073456 -14.500032 201.842545 0 22 255 
209.644897 -79.928604 228.585297 0 133 255 
216.644897 11.071396 154.485565 0 26 255 
274.644897 -32.928604 188.285446 0 4 255 
296.644897 -4.928604 211.685364 0 4 255 
293.644897 -16.928604 172.685501 255 2 0 
160.644897 -43.928604 220.785339 255 11 0 
161.644897 -23.928604 179.185486 0 0 153 
190.644897 -54.928604 179.185486 255 17 0 
237.644897 -32.928604 258.485199 0 4 255 
147.216324 -17.500032 182.342606 0 28 255 
229.644897 -6.928604 170.085510 0 11 255 
194.644897 -4.928604 145.385590 0 42 255 
239.644897 -47.928604 205.185394 0 11 255 
286.644897 11.071396 219.485336 0 0 233 
220.644897 -15.928604 151.885574 255 8 0 
273.644897 -27.928604 170.085510 110 0 73 
255.644897 -15.928604 207.785370 0 0 183 
248.644897 9.071396 176.585480 210 0 23 
149.644897 -48.928604 219.485336 0 0 243 
282.644897 16.071396 218.185333 0 0 243 
196.644897 -83.928604 205.185394 0 171 255 
280.644897 -13.928604 253.285217 0 0 183 
211.644897 -24.928604 189.585449 255 11 0 
159.644897 -58.928604 218.185333 0 15 255 
244.644897 -45.928604 263.685181 0 4 255 
253.644897 -73.928604 218.185333 0 8 255 
215.644897 12.071396 237.685272 0 35 255 
184.644897 -51.928604 175.285492 255 8 0 
206.644897 -23.928604 210.385376 255 4 0 
206.644897 -25.928604 254.585205 0 122 255 
217.644897 -39.928604 228.585297 255 4 0 
180.644897 -40.928604 241.585266 255 4 0 
258.644897 -70.928604 236.385284 255 4 0 
212.644897 -15.928604 189.585449 255 4 0 
200.644897 -10.928604 173.985504 0 17 255 
216.644897 -19.928604 229.885300 255 2 0 
247.644897 20.071396 214.285355 0 0 243 
161.644897 -40.928604 250.685226 0 4 255 
306.644897 -21.928604 214.285355 170 0 43 
257.644897 -21.928604 144.085602 0 0 243 
260.644897 -58.928604 246.785248 0 8 255 
262.644897 -71.928604 190.885437 255 2 0 
192.644897 -60.928604 214.285355 110 0 73 
186.644897 -36.928604 251.985229 230 0 13 
226.644897 -65.928604 232.485291 0 17 255 
152.644897 -16.928604 209.085373 0 0 193 
193.644897 -55.928604 231.185303 0 2 255 
228.644897 -34.928604 231.185303 255 8 0 
250.644897 -53.928604 245.485245 0 22 255 
286.644897 7.071396 203.885391 0 108 255 
275.644897 31.071396 212.985352 0 11 255 
273.644897 -55.928604 179.185486 0 8 255 
281.644897 4.071396 180.485474 0 33 255 
183.644897 -9.928604 173.985504 0 42 255 
158.644897 -18.928604 163.585541 0 28 255 
165.644897 -18.928604 175.285492 0 48 255 
215.644897 -19.928604 149.285583 0 39 255 
306.644897 -5.928604 172.685501 0 117 255 
282.644897 -55.928604 185.685455 110 0 73 
280.644897 -14.928604 159.685547 255 2 0 
293.644897 11.071396 193.485428 0 126 255 
195.644897 17.071396 170.085510 0 142 255 
236.644897 -73.928604 245.485245 0 0 213 
234.644897 -30.928604 145.385590 0 95 255 
210.644897 -52.928604 210.385376 210 0 23 
176.644897 -73.928604 218.185333 0 0 243 
251.644897 -27.928604 211.685364 255 17 0 
258.644897 -5.928604 193.485428 0 17 255 
147.644897 -47.928604 222.085327 255 11 0 
196.644897 -39.928604 160.985535 255 4 0 
281.644897 -61.928604 214.285355 255 22 0 
215.644897 -22.928604 176.585480 255 15 0 
172.644897 -11.928604 190.885437 0 2 255 
147.644897 -30.928604 164.885529 0 0 243 
265.644897 -31.928604 185.685455 10 0 123 
244.644897 -55.928604 258.485199 0 0 233 
176.644897 -49.928604 206.485382 0 97 255 
184.644897 -21.928604 223.385315 0 0 133 
215.644897 -56.928604 206.485382 130 0 63 
252.644897 -50.928604 209.085373 255 17 0 
189.216324 -1.500033 257.742340 0 157 255 
160.644897 -17.928604 227.285309 0 4 255 
239.644897 -29.928604 137.585632 0 59 255 
198.644897 -63.928604 207.785370 0 48 255 
238.644897 -21.928604 172.685501 255 8 0 
254.644897 23.071396 231.185303 0 28 255 
259.644897 1.071396 227.285309 0 0 193 
234.644897 -15.928604 218.185333 0 48 255 
223.644897 -55.928604 251.985229 0 39 255 
280.644897 -46.928604 185.685455 255 17 0 
221.644897 -87.928604 214.285355 0 128 255 
183.644897 -59.928604 179.185486 0 15 255 
191.644897 -60.928604 246.785248 0 59 255 
227.644897 -36.928604 170.085510 130 0 63 
245.644897 -57.928604 179.185486 0 0 163 
281.644897 -63.928604 224.685318 0 139 255 
282.644897 -30.928604 227.285309 255 17 0 
273.644897 -3.928604 228.585297 255 26 0 
163.644897 -18.928604 150.585571 0 79 255 
196.644897 -32.928604 255.885208 0 91 255 
286.644897 -43.928604 170.085510 0 0 153 
187.644897 -25.928604 186.985443 10 0 123 
166.644897 -30.928604 207.785370 0 15 255 
243.644897 -17.928604 196.085419 0 184 255 
243.644897 -19.928604 248.085236 0 8 255 
207.644897 -28.928604 137.585632 0 204 255 
171.644897 -49.928604 244.185242 0 2 255 
255.644897 2.071396 186.985443 0 0 213 
224.644897 2.071396 261.085205 0 11 255 
223.644897 -60.928604 150.585571 0 146 255 
214.644897 -42.928604 196.085419 0 173 255 
220.644897 -36.928604 228.585297 255 17 0 
256.644897 -21.928604 254.585205 255 17 0 
270.644897 17.071396 189.585449 10 0 123 
145.644897 -29.928604 197.385406 255 35 0 
213.644897 -37.928604 223.385315 255 8 0 
234.644897 -5.928604 153.185577 230 0 13 
232.644897 -51.928604 244.185242 255 4 0 
223.644897 -28.928604 237.685272 210 0 23 
283.644897 -31.928604 235.085281 255 28 0 
186.644897 -33.928604 244.185242 0 0 183 
252.073471 33.499966 240.842407 0 179 255 
263.644897 -37.928604 242.885254 0 0 233 
256.644897 -39.928604 215.585358 255 22 0 
206.644897 -78.928604 206.485382 0 0 233 
227.644897 -28.928604 137.585632 0 66 255 
285.644897 23.071396 206.485382 0 17 255 
234.644897 -68.928604 171.385498 0 26 255 
255.644897 -19.928604 146.685593 0 0 233 
214.644897 -47.928604 218.185333 0 117 255 
212.644897 -4.928604 266.285156 0 91 255 
152.644897 -33.928604 218.185333 230 0 13 
196.644897 -79.928604 214.285355 0 0 183 
277.644897 -6.928604 229.885300 255 4 0 
258.644897 -31.928604 262.385193 0 53 255 
242.644897 -53.928604 196.085419 255 4 0 
175.644897 -40.928604 206.485382 0 26 255 
153.644897 -30.928604 216.885345 255 15 0 
212.644897 -22.928604 201.285400 0 26 255 
191.644897 -21.928604 159.685547 0 42 255 
270.644897 -32.928604 246.785248 255 17 0 
241.644897 34.071396 175.285492 0 17 255 
180.644897 -29.928604 163.585541 0 0 243 
281.644897 2.071396 242.885254 0 0 193 
193.644897 -16.928604 201.285400 0 42 255 
245.644897 43.071396 203.885391 0 26 255 
197.644897 -12.928604 203.885391 0 142 255 
227.644897 -15.928604 209.085373 50 0 103 
201.644897 -53.928604 164.885529 0 17 255 
293.644897 -45.928604 163.585541 0 0 233 
258.644897 17.071396 186.985443 170 0 43 
271.644897 5.071396 216.885345 0 11 255 
249.644897 42.071396 188.285446 0 102 255 
195.644897 -42.928604 241.585266 0 0 243 
252.644897 -71.928604 236.385284 0 148 255 
239.644897 41.071396 207.785370 0 39 255 
284.644897 -21.928604 164.885529 210 0 23 
257.644897 -22.928604 254.585205 130 0 63 
224.644897 -24.928604 189.585449 210 0 23 
214.644897 -80.928604 203.885391 0 28 255 
150.644897 -45.928604 190.885437 255 4 0 
212.644897 -23.928604 237.685272 0 0 183 
157.644897 -13.928604 196.085419 255 4 0 
141.644897 -35.928604 183.085464 0 73 255 
172.644897 -14.928604 167.485519 50 0 103 
139.644897 -33.928604 193.485428 0 8 255 
225.644897 -6.928604 163.585541 0 0 153 
264.644897 -83.928604 214.285355 0 95 255 
220.644897 -40.928604 212.985352 0 166 255 
236.644897 32.071396 211.685364 0 142 255 
203.644897 -16.928604 244.185242 0 17 255 
243.644897 16.071396 196.085419 0 0 243 
291.644897 -38.928604 192.185425 170 0 43 
239.644897 0.071396 244.185242 0 42 255 
163.644897 -19.928604 251.985229 0 0 163 
189.644897 -31.928604 240.285263 0 77 255 
166.644897 -19.928604 158.385559 0 0 153 
257.644897 -35.928604 233.785278 255 28 0 
202.644897 -52.928604 172.685501 255 11 0 
174.644897 -17.928604 225.985321 0 35 255 
169.644897 -11.928604 185.685455 0 4 255 
173.644897 -33.928604 248.085236 0 0 193 
185.644897 15.071396 170.085510 0 57 255 
263.644897 -65.928604 198.685410 0 126 255 
167.644897 -21.928604 168.785522 230 0 13 
202.644897 6.071396 237.685272 230 0 13 
201.644897 -24.928604 237.685272 255 2 0 
253.644897 16.071396 166.185516 0 0 163 
199.644897 -26.928604 246.785248 0 84 255 
262.644897 41.071396 184.385468 0 0 133 
166.644897 -17.928604 210.385376 255 11 0 
265.644897 -13.928604 179.185486 255 4 0 
260.644897 -25.928604 223.385315 255 17 0 
265.644897 -42.928604 185.685455 210 0 23 
227.644897 -0.928604 183.085464 0 111 255 
241.644897 -73.928604 179.185486 130 0 63 
290.644897 -24.928604 222.085327 255 4 0 
200.644897 -27.928604 223.385315 110 0 73 
185.644897 -42.928604 207.785370 255 28 0 
168.644897 -52.928604 164.885529 0 0 153 
189.644897 -69.928604 176.585480 0 22 255 
275.644897 -62.928604 159.685547 0 157 255 
259.644897 17.071396 181.785461 10 0 123 
253.644897 -25.928604 233.785278 255 17 0 
188.644897 -9.928604 181.785461 0 0 193 
245.644897 16.071396 177.885483 50 0 103 
255.644897 3.071396 248.085236 0 15 255 
203.644897 4.071396 153.185577 0 0 233 
204.644897 -67.928604 180.485474 0 53 255 
265.644897 -12.928604 209.085373 0 57 255 
202.644897 -1.928604 223.385315 0 17 255 
214.644897 -59.928604 186.985443 255 4 0 
145.644897 -19.928604 186.985443 110 0 73 
169.644897 -48.928604 163.585541 0 33 255 
289.644897 -51.928604 210.385376 0 0 183 
255.644897 -66.928604 214.285355 170 0 43 
238.644897 -68.928604 154.485565 0 0 133 
306.644897 -23.928604 190.885437 0 59 255 
234.644897 17.071396 184.385468 0 64 255 
250.644897 2.071396 255.885208 0 0 233 
219.644897 -8.928604 150.585571 70 0 93 
247.644897 4.071396 245.485245 10 0 123 
275.644897 -65.928604 166.185516 0 0 183 
254.644897 -4.928604 223.385315 0 35 255 
237.644897 0.071396 168.785522 0 0 233 
174.644897 -18.928604 159.685547 0 0 193 
146.644897 -17.928604 183.085464 0 33 255 
162.644897 -16.928604 151.885574 0 15 255 
203.644897 -7.928604 262.385193 0 46 255 
208.644897 10.071396 159.685547 0 33 255 
267.644897 -12.928604 147.985596 0 35 255 
275.644897 -28.928604 236.385284 255 26 0 
237.644897 -62.928604 158.385559 0 42 255 
275.644897 25.071396 227.285309 0 22 255 
203.644897 13.071396 176.585480 70 0 93 
283.644897 38.071396 183.085464 0 17 255 
226.644897 -17.928604 254.585205 210 0 23 
233.644897 -31.928604 190.885437 0 0 133 
257.644897 27.071396 205.185394 0 35 255 
214.644897 -19.928604 184.385468 255 4 0 
290.644897 -8.928604 214.285355 255 11 0 
203.644897 -11.928604 203.885391 0 71 255 
245.644897 -66.928604 155.785553 230 0 13 
269.644897 11.071396 194.785431 0 15 255 
232.644897 -27.928604 245.485245 0 4 255 
249.644897 -59.928604 153.185577 0 46 255 
209.644897 -18.928604 166.185516 0 0 163 
177.644897 -51.928604 181.785461 255 4 0 
249.644897 -48.928604 172.685501 255 8 0 
202.644897 -29.928604 267.585175 0 157 255 
220.644897 -68.928604 158.385559 50 0 103 
186.644897 -9.928604 255.885208 0 91 255 
253.644897 28.071396 250.685226 0 148 255 
237.644897 -19.928604 194.785431 0 53 255 
154.644897 -39.928604 188.285446 255 11 0 
179.644897 -10.928604 197.385406 110 0 73 
194.644897 -71.928604 240.285263 0 148 255 
197.644897 -40.928604 180.485474 255 28 0 
247.644897 -80.928604 211.685364 0 0 183 
275.644897 -21.928604 250.685226 0 39 255 
240.644897 -47.928604 196.085419 0 0 183 
212.644897 -15.928604 180.485474 0 8 255 
167.644897 -17.928604 209.085373 255 2 0 
193.644897 6.071396 179.185486 0 26 255 
233.644897 -61.928604 181.785461 255 4 0 
157.644897 -16.928604 193.485428 255 17 0 
175.644897 -36.928604 228.585297 255 22 0 
265.644897 -47.928604 229.885300 255 33 0 
257.644897 -69.928604 162.285538 0 0 213 
173.644897 -17.928604 201.285400 0 57 255 
194.644897 -11.928604 151.885574 230 0 13 
186.644897 -67.928604 196.085419 210 0 23 
228.644897 -65.928604 172.685501 0 35 255 
190.644897 1.071396 170.085510 0 0 163 
188.644897 10.071396 175.285492 0 53 255 
262.644897 -23.928604 206.485382 0 8 255 
223.644897 -63.928604 180.485474 0 4 255 
241.644897 -32.928604 168.785522 110 0 73 
292.216339 19.642824 200.542542 0 184 255 
253.644897 -45.928604 201.285400 0 126 255 
175.644897 -52.928604 214.285355 255 4 0 
235.644897 -76.928604 231.185303 0 0 233 
197.644897 -60.928604 173.985504 0 64 255 
225.644897 -55.928604 159.685547 255 2 0 
273.644897 8.071396 236.385284 0 35 255 
256.644897 -23.928604 253.285217 210 0 23 
200.644897 -67.928604 190.885437 210 0 23 
199.644897 -49.928604 190.885437 255 33 0 
267.644897 34.071396 215.585358 0 197 255 
206.644897 -36.928604 164.885529 255 2 0 
213.644897 -22.928604 164.885529 0 0 213 
247.644897 -66.928604 194.785431 0 4 255 
168.644897 -37.928604 232.485291 255 22 0 
192.644897 -1.928604 236.385284 0 22 255 
218.644897 -50.928604 246.785248 255 15 0 
236.644897 -25.928604 137.585632 0 22 255 
249.644897 -45.928604 223.385315 255 17 0 
203.644897 -69.928604 242.885254 130 0 63 
241.644897 -59.928604 258.485199 0 142 255 
257.644897 -78.928604 209.085373 210 0 23 
200.644897 7.071396 183.085464 0 153 255 
188.644897 -23.928604 250.685226 0 57 255 
273.644897 -44.928604 189.585449 50 0 103 
191.644897 4.071396 254.585205 0 53 255 
191.644897 18.071396 249.385223 0 117 255 
196.644897 -8.928604 231.185303 0 22 255 
218.644897 -55.928604 183.085464 255 15 0 
204.644897 -77.928604 205.185394 0 64 255 
207.644897 -8.928604 227.285309 0 15 255 
168.644897 -47.928604 229.885300 0 17 255 
274.644897 -29.928604 166.185516 255 8 0 
198.644897 -38.928604 149.285583 0 53 255 
219.644897 -63.928604 155.785553 0 0 133 
249.644897 -21.928604 218.185333 50 0 103 
199.644897 -28.928604 170.085510 230 0 13 
189.644897 -21.928604 185.685455 0 0 213 
179.644897 -17.928604 214.285355 255 33 0 
227.644897 -8.928604 248.085236 255 4 0 
246.644897 -51.928604 145.385590 0 179 255 
170.644897 -35.928604 212.985352 255 11 0 
281.644897 27.071396 170.085510 0 8 255 
294.644897 -12.928604 167.485519 0 33 255 
170.644897 -45.928604 171.385498 0 73 255 
242.644897 2.071396 159.685547 0 46 255 
229.644897 -76.928604 224.685318 0 2 255 
200.644897 -68.928604 158.385559 0 8 255 
204.644897 -67.928604 212.985352 255 8 0 
147.644897 -39.928604 223.385315 70 0 93 
260.644897 -40.928604 236.385284 255 26 0 
241.644897 -10.928604 153.185577 110 0 73 
171.644897 -55.928604 185.685455 255 8 0 
269.644897 -5.928604 176.585480 0 0 163 
176.644897 -48.928604 233.785278 255 8 0 
209.644897 -73.928604 216.885345 230 0 13 
293.644897 -31.928604 199.985413 170 0 43 
268.644897 -5.928604 206.485382 70 0 93 
287.644897 3.071396 179.185486 0 22 255 
239.644897 30.071396 172.685501 0 233 255 
249.644897 10.071396 189.585449 50 0 103 
204.644897 -29.928604 233.785278 110 0 73 
237.644897 -44.928604 264.985168 0 0 183 
220.644897 -26.928604 197.385406 0 0 133 
196.644897 -58.928604 199.985413 0 0 153 
187.644897 -51.928604 179.185486 255 33 0 
196.644897 -75.928604 211.685364 70 0 93 
165.644897 -36.928604 197.385406 0 11 255 
220.644897 -64.928604 162.285538 255 11 0 
226.644897 -13.928604 223.385315 110 0 73 
168.644897 -61.928604 233.785278 0 11 255 
220.644897 -74.928604 172.685501 0 26 255 
187.644897 -52.928604 218.185333 255 8 0 
228.644897 -38.928604 249.385223 255 2 0 
253.644897 -10.928604 259.785187 210 0 23 
201.644897 -56.928604 163.585541 0 0 163 
306.644897 -1.928604 215.585358 110 0 73 
281.644897 -37.928604 171.385498 0 86 255 
244.644897 6.071396 164.885529 0 8 255 
151.644897 -21.928604 236.385284 0 35 255 
255.644897 4.071396 179.185486 0 11 255 
280.644897 -5.928604 249.385223 0 22 255 
242.644897 35.071396 228.585297 0 22 255 
178.644897 6.071396 164.885529 0 142 255 
264.644897 -75.928604 211.685364 0 0 183 
245.644897 15.071396 180.485474 0 0 193 
258.644897 -27.928604 207.785370 255 42 0 
252.644897 -49.928604 215.585358 255 26 0 
213.644897 -29.928604 194.785431 70 0 93 
256.644897 -26.928604 222.085327 255 26 0 
206.644897 -55.928604 155.785553 0 4 255 
235.644897 -45.928604 227.285309 255 22 0 
147.644897 -48.928604 194.785431 0 4 255 
247.644897 -52.928604 151.885574 230 0 13 
240.644897 -58.928604 240.285263 0 2 255 
210.644897 -21.928604 201.285400 0 115 255 
165.644897 -20.928604 242.885254 110 0 73 
274.644897 -29.928604 216.885345 0 42 255 
261.644897 25.071396 251.985229 0 97 255 
299.644897 -9.928604 232.485291 0 0 153 
294.644897 -16.928604 176.585480 255 11 0 
218.644897 -62.928604 183.085464 50 0 103 
294.644897 -24.928604 242.885254 0 0 133 
237.644897 26.071396 225.985321 0 228 255 
218.644897 -31.928604 207.785370 0 4 255 
173.644897 -18.928604 162.285538 0 42 255 
234.644897 14.071396 219.485336 50 0 103 
263.644897 -42.928604 170.085510 0 48 255 
310.644897 -11.928604 186.985443 0 0 233 
223.644897 -2.928604 254.585205 130 0 63 
248.644897 -1.928604 177.885483 0 15 255 
223.644897 -5.928604 199.985413 70 0 93 
151.644897 -33.928604 227.285309 0 42 255 
229.644897 -25.928604 232.485291 255 22 0 
253.644897 -77.928604 183.085464 130 0 63 
215.644897 13.071396 244.185242 0 135 255 
215.644897 -23.928604 137.585632 0 26 255 
144.644897 -25.928604 203.885391 0 115 255 
210.644897 -63.928604 210.385376 0 35 255 
280.644897 36.071396 224.685318 0 235 255 
227.644897 -5.928604 214.285355 50 0 103 
193.644897 -64.928604 188.285446 255 2 0 
273.644897 -36.928604 145.385590 210 0 23 
294.644897 2.071396 196.085419 0 2 255 
246.644897 12.071396 201.285400 0 102 255 
179.644897 -23.928604 205.185394 0 2 255 
173.644897 -31.928604 216.885345 255 39 0 
179.644897 -60.928604 185.685455 255 4 0 
203.644897 -60.928604 160.985535 230 0 13 
292.644897 -45.928604 229.885300 0 2 255 
160.644897 -53.928604 205.185394 0 108 255 
173.644897 -19.928604 238.985260 255 2 0 
267.644897 -25.928604 201.285400 0 77 255 
217.644897 -1.928604 261.085205 0 39 255 
208.644897 15.071396 170.085510 0 22 255 
259.644897 -76.928604 214.285355 0 128 255 
226.644897 -48.928604 199.985413 10 0 123 
177.644897 -68.928604 170.085510 0 104 255 
261.644897 28.071396 220.785339 0 4 255 
249.644897 -72.928604 245.485245 0 71 255 
230.644897 -0.928604 233.785278 0 35 255 
249.644897 2.071396 222.085327 0 0 193 
275.644897 -34.928604 228.585297 255 15 0 
199.644897 -57.928604 231.185303 230 0 13 
291.644897 15.071396 228.585297 0 0 243 
204.644897 -8.928604 253.285217 0 2 255 
252.644897 2.071396 181.785461 0 22 255 
201.644897 -79.928604 222.085327 0 0 243 
192.644897 -71.928604 207.785370 0 64 255 
196.644897 -18.928604 205.185394 0 33 255 
258.644897 8.071396 225.985321 0 8 255 
198.644897 -34.928604 147.985596 0 59 255 
266.644897 -18.928604 241.585266 0 0 233 
242.644897 -20.928604 254.585205 0 0 133 
219.644897 -59.928604 181.785461 230 0 13 
261.644897 32.071396 233.785278 0 15 255 
167.644897 -13.928604 166.185516 0 4 255 
246.644897 34.071396 235.085281 0 46 255 
204.644897 -38.928604 211.685364 0 139 255 
289.644897 -38.928604 167.485519 0 8 255 
239.644897 -53.928604 232.485291 255 17 0 
257.644897 6.071396 215.585358 110 0 73 
186.644897 -74.928604 173.985504 0 108 255 
292.644897 -10.928604 198.685410 0 11 255 
154.644897 -31.928604 232.485291 255 4 0 
245.644897 -31.928604 206.485382 255 35 0 
238.644897 -76.928604 225.985321 0 28 255 
289.644897 -16.928604 172.685501 255 8 0 
172.644897 -26.928604 232.485291 230 0 13 
163.644897 -52.928604 227.285309 0 48 255 
227.644897 -55.928604 209.085373 255 22 0 
154.644897 -44.928604 229.885300 230 0 13 
199.644897 -9.928604 185.685455 0 166 255 
246.644897 -9.928604 268.885162 0 2 255 
242.644897 37.071396 210.385376 0 166 255 
270.644897 -5.928604 212.985352 0 64 255 
230.644897 -18.928604 158.385559 255 2 0 
243.644897 -35.928604 250.685226 0 71 255 
241.644897 -57.928604 197.385406 110 0 73 
163.644897 -30.928604 186.985443 255 48 0 
162.644897 -12.928604 198.685410 0 0 153 
258.644897 -37.928604 254.585205 255 2 0 
247.644897 -8.928604 222.085327 0 0 233 
301.644897 -4.928604 192.185425 210 0 23 
213.644897 -51.928604 192.185425 170 0 43 
240.644897 -70.928604 167.485519 0 0 153 
196.644897 -82.928604 184.385468 0 15 255 
279.644897 19.071396 176.585480 0 33 255 
289.644897 -21.928604 218.185333 170 0 43 
236.644897 -30.928604 267.585175 0 117 255 
139.644897 -42.928604 218.185333 0 0 133 
212.644897 -1.928604 258.485199 0 42 255 
209.644897 -23.928604 249.385223 0 108 255 
176.644897 -51.928604 186.985443 255 28 0 
229.644897 -61.928604 183.085464 255 2 0 
173.644897 -64.928604 184.385468 0 11 255 
148.644897 -37.928604 192.185425 255 8 0 
255.644897 37.071396 212.985352 0 46 255 
280.644897 35.071396 216.885345 0 186 255 
199.644897 -61.928604 245.485245 255 26 0 
296.644897 -20.928604 197.385406 0 79 255 
227.644897 -64.928604 237.685272 255 8 0 
268.644897 -0.928604 259.785187 0 166 255 
254.644897 -72.928604 225.985321 0 28 255 
238.644897 -6.928604 173.985504 0 39 255 
285.644897 22.071396 223.385315 0 4 255 
219.644897 -76.928604 210.385376 130 0 63 
164.644897 -60.928604 216.885345 70 0 93 
224.644897 -7.928604 225.985321 0 79 255 
266.644897 11.071396 231.185303 0 17 255 
236.644897 -14.928604 218.185333 0 135 255 
188.644897 -16.928604 207.785370 0 8 255 
257.644897 -22.928604 137.585632 0 15 255 
234.644897 -48.928604 255.885208 255 17 0 
259.644897 -22.928604 137.585632 0 33 255 
276.644897 -1.928604 219.485336 0 48 255 
284.644897 -3.928604 210.385376 0 42 255 
185.644897 -69.928604 207.785370 0 71 255 
185.644897 -59.928604 205.185394 0 97 255 
218.644897 6.071396 212.985352 110 0 73 
199.644897 -72.928604 185.685455 0 2 255 
177.644897 -13.928604 157.085556 0 48 255 
251.644897 -74.928604 190.885437 230 0 13 
280.644897 -35.928604 205.185394 10 0 123 
154.644897 -18.928604 214.285355 255 4 0 
153.644897 -50.928604 170.085510 0 0 213 
278.644897 7.071396 179.185486 0 11 255 
167.644897 -34.928604 228.585297 255 22 0 
255.644897 -8.928604 246.785248 0 39 255 
267.644897 38.071396 212.985352 0 226 255 
195.644897 18.071396 176.585480 0 73 255 
272.644897 -36.928604 253.285217 255 28 0 
245.644897 -26.928604 258.485199 230 0 13 
256.644897 -38.928604 232.485291 255 33 0 
163.644897 -36.928604 163.585541 0 0 133 
252.644897 29.071396 209.085373 0 0 243 
207.216324 -83.357178 177.328339 0 117 255 
188.644897 -31.928604 245.485245 0 0 243 
242.644897 -76.928604 220.785339 0 42 255 
214.644897 -55.928604 179.185486 255 28 0 
214.644897 -78.928604 180.485474 0 4 255 
217.644897 -5.928604 206.485382 70 0 93 
288.644897 -9.928604 223.385315 0 15 255 
183.644897 -32.928604 207.785370 0 197 255 
205.644897 2.071396 188.285446 0 17 255 
265.644897 22.071396 164.885529 0 11 255 
202.644897 -72.928604 186.985443 0 8 255 
278.644897 23.071396 231.185303 170 0 43 
189.644897 -22.928604 177.885483 10 0 123 
155.644897 -53.928604 215.585358 0 0 153 
177.644897 -5.928604 197.385406 0 46 255 
202.644897 -38.928604 199.985413 0 157 255 
223.644897 8.071396 163.585541 0 208 255 
198.644897 -8.928604 142.785614 0 22 255 
149.644897 -55.928604 194.785431 0 4 255 
152.644897 -62.928604 210.385376 0 33 255 
250.644897 -40.928604 219.485336 255 8 0 
192.644897 -34.928604 238.985260 0 0 233 
217.644897 -20.928604 242.885254 0 33 255 
246.644897 29.071396 164.885529 0 86 255 
154.644897 -25.928604 240.285263 255 28 0 
302.644897 6.071396 171.385498 10 0 123 
255.644897 -35.928604 238.985260 255 17 0 
268.644897 -24.928604 176.585480 255 8 0 
211.644897 -40.928604 267.585175 0 39 255 
165.644897 -32.928604 197.385406 70 0 93 
276.644897 26.071396 162.285538 0 11 255 
194.644897 -40.928604 162.285538 255 15 0 
281.644897 29.071396 166.185516 0 39 255 
260.644897 -56.928604 232.485291 70 0 93 
153.644897 -27.928604 218.185333 255 15 0 
260.644897 -49.928604 242.885254 255 35 0 
224.644897 -50.928604 171.385498 170 0 43 
246.644897 -40.928604 151.885574 0 11 255 
251.644897 31.071396 225.985321 0 115 255 
144.644897 -38.928604 212.985352 255 11 0 
184.644897 -77.928604 209.085373 0 0 163 
174.644897 -27.928604 171.385498 0 15 255 
215.644897 -41.928604 179.185486 255 17 0 
275.644897 22.071396 241.585266 0 4 255 
173.644897 -61.928604 199.985413 0 2 255 
277.644897 -33.928604 207.785370 0 0 193 
229.644897 -36.928604 224.685318 255 15 0 
216.644897 -22.928604 232.485291 70 0 93 
146.644897 -14.928604 206.485382 0 104 255 
283.644897 -24.928604 160.985535 170 0 43 
292.644897 -13.928604 184.385468 0 0 183 
178.644897 -4.928604 158.385559 0 95 255 
153.216324 -19.500032 230.442444 0 0 233 
217.644897 -73.928604 189.585449 230 0 13 
143.644897 -25.928604 222.085327 0 4 255 
154.644897 -36.928604 205.185394 0 139 255 
178.644897 -58.928604 233.785278 230 0 13 
217.644897 -13.928604 206.485382 0 0 233 
275.644897 -19.928604 232.485291 255 28 0 
290.644897 10.071396 235.085281 0 73 255 
218.644897 -17.928604 218.185333 255 26 0 
244.644897 -31.928604 245.485245 0 4 255 
235.644897 -0.928604 210.385376 0 2 255 
204.644897 -10.928604 202.585388 0 71 255 
197.644897 -55.928604 209.085373 255 33 0 
276.644897 3.071396 240.285263 0 57 255 
151.644897 -25.928604 166.185516 0 0 243 
270.644897 33.071396 225.985321 0 97 255 
262.644897 -46.928604 162.285538 230 0 13 
218.644897 -47.928604 228.585297 255 22 0 
229.644897 -39.928604 235.085281 0 0 153 
272.644897 -64.928604 197.385406 0 0 233 
227.644897 -47.928604 158.385559 210 0 23 
203.644897 -30.928604 259.785187 0 0 243 
178.644897 -35.928604 145.385590 0 84 255 
232.644897 -73.928604 206.485382 170 0 43 
238.644897 -39.928604 172.685501 255 8 0 
237.644897 -18.928604 198.685410 0 0 153 
241.644897 -22.928604 250.685226 255 26 0 
199.644897 -42.928604 153.185577 0 26 255 
180.644897 -25.928604 190.885437 0 0 163 
198.644897 -8.928604 186.985443 0 153 255 
223.644897 -68.928604 190.885437 255 4 0 
239.644897 -1.928604 163.585541 0 28 255 
263.644897 -50.928604 159.685547 130 0 63 
165.644897 -14.928604 173.985504 0 108 255 
216.644897 -21.928604 268.885162 0 208 255 
164.644897 -26.928604 150.585571 0 148 255 
180.644897 -59.928604 185.685455 210 0 23 
196.644897 19.071396 164.885529 0 8 255 
297.644897 -41.928604 190.885437 110 0 73 
280.644897 27.071396 179.185486 0 39 255 
282.644897 6.071396 188.285446 0 8 255 
210.644897 -62.928604 202.585388 0 59 255 
180.644897 -57.928604 172.685501 210 0 23 
201.644897 -39.928604 253.285217 0 0 213 
257.644897 -29.928604 264.985168 0 28 255 
242.644897 9.071396 147.985596 0 228 255 
203.644897 -5.928604 154.485565 0 46 255 
241.644897 -29.928604 172.685501 255 4 0 
155.644897 -60.928604 201.285400 0 4 255 
218.644897 -76.928604 227.285309 0 0 193 
223.644897 -68.928604 185.685455 255 2 0 
191.644897 -3.928604 235.085281 0 22 255 
146.644897 -31.928604 198.685410 70 0 93 
223.644897 22.071396 202.585388 0 97 255 
213.644897 -19.928604 137.585632 0 84 255 
240.644897 -7.928604 173.985504 0 33 255 
208.644897 -7.928604 249.385223 0 0 153 
214.644897 -23.928604 181.785461 255 2 0 
217.644897 3.071396 229.885300 0 0 153 
257.644897 19.071396 222.085327 255 8 0 
275.644897 -48.928604 153.185577 0 0 213 
183.644897 -55.928604 159.685547 10 0 123 
167.644897 -14.928604 162.285538 0 17 255 
218.644897 -9.928604 179.185486 0 26 255 
278.644897 17.071396 176.585480 0 8 255 
225.644897 -29.928604 193.485428 0 4 255 
218.644897 -3.928604 220.785339 0 91 255 
217.644897 -8.928604 190.885437 10 0 123 
154.644897 -31.928604 186.985443 255 22 0 
161.644897 -30.928604 253.285217 0 26 255 
276.644897 -61.928604 227.285309 210 0 23 
236.644897 -63.928604 163.585541 0 0 183 
270.644897 26.071396 246.785248 0 22 255 
202.644897 -45.928604 240.285263 230 0 13 
250.644897 -32.928604 201.285400 0 57 255 
206.644897 -82.928604 186.985443 0 0 163 
200.644897 2.071396 249.385223 0 35 255 
215.644897 -39.928604 235.085281 255 2 0 
263.644897 17.071396 170.085510 170 0 43 
181.644897 -60.928604 219.485336 255 11 0 
273.644897 -49.928604 216.885345 255 26 0 
197.644897 1.071396 166.185516 110 0 73 
267.644897 24.071396 228.585297 0 4 255 
193.644897 -59.928604 232.485291 0 48 255 
188.644897 -14.928604 249.385223 0 0 213 
236.644897 -29.928604 164.885529 50 0 103 
190.644897 -19.928604 246.785248 0 171 255 
230.644897 -27.928604 167.485519 0 73 255 
272.644897 4.071396 159.685547 0 17 255 
258.644897 -24.928604 153.185577 0 26 255 
285.644897 21.071396 232.485291 0 2 255 
290.644897 -33.928604 194.785431 255 2 0 
191.644897 -8.928604 225.985321 0 17 255 
248.644897 -29.928604 157.085556 0 15 255 
236.644897 -3.928604 268.885162 0 71 255 
220.644897 -19.928604 214.285355 255 2 0 
222.644897 -86.928604 216.885345 0 164 255 
210.644897 -67.928604 222.085327 0 2 255 
161.644897 -45.928604 209.085373 0 22 255 
206.644897 -51.928604 157.085556 0 17 255 
211.644897 -25.928604 261.085205 0 48 255 
205.644897 11.071396 175.285492 0 0 233 
215.644897 -15.928604 207.785370 130 0 63 
204.644897 -63.928604 192.185425 255 8 0 
240.644897 -81.928604 228.585297 0 139 255 
284.644897 10.071396 184.385468 0 0 243 
197.644897 -36.928604 236.385284 0 33 255 
273.644897 7.071396 190.885437 0 0 233 
191.644897 -30.928604 209.085373 0 66 255 
245.644897 -34.928604 258.485199 210 0 23 
210.644897 -8.928604 216.885345 0 8 255 
271.644897 38.071396 171.385498 0 171 255 
228.644897 7.071396 144.085602 0 86 255 
217.644897 -2.928604 157.085556 170 0 43 
298.644897 -39.928604 220.785339 50 0 103 
167.644897 -57.928604 184.385468 0 8 255 
231.644897 -51.928604 248.085236 255 8 0 
214.644897 -58.928604 176.585480 210 0 23 
275.644897 -43.928604 188.285446 0 53 255 
189.644897 -24.928604 224.685318 0 0 183 
198.216324 15.499968 257.742340 0 8 255 
246.644897 0.071396 192.185425 0 0 163 
199.644897 -18.928604 160.985535 0 57 255 
255.644897 32.071396 229.885300 0 173 255 
256.644897 -37.928604 160.985535 255 22 0 
208.644897 -21.928604 196.085419 255 2 0 
262.644897 -62.928604 179.185486 0 15 255 
172.644897 -16.928604 219.485336 210 0 23 
222.644897 -30.928604 244.185242 0 39 255 
249.644897 -37.928604 192.185425 255 22 0 
248.644897 35.071396 207.785370 0 0 213 
244.644897 -68.928604 194.785431 0 133 255 
243.644897 -14.928604 214.285355 0 17 255 
244.644897 -21.928604 185.685455 70 0 93 
223.644897 -9.928604 264.985168 10 0 123 
268.644897 9.071396 210.385376 255 8 0 
282.644897 -40.928604 215.585358 210 0 23 
257.644897 6.071396 223.385315 0 15 255 
260.644897 -43.928604 155.785553 255 2 0 
195.644897 -1.928604 175.285492 0 35 255 
225.644897 -59.928604 250.685226 0 0 193 
234.644897 -7.928604 147.985596 0 8 255 
208.644897 -53.928604 173.985504 255 2 0 
253.644897 -4.928604 201.285400 0 28 255 
290.644897 -10.928604 171.385498 10 0 123 
166.644897 -23.928604 218.185333 255 8 0 
201.644897 -79.928604 212.985352 130 0 63 
228.644897 -8.928604 264.985168 0 4 255 
256.644897 -21.928604 215.585358 0 0 233 
255.644897 32.071396 235.085281 0 17 255 
278.644897 28.071396 205.185394 0 157 255 
213.644897 -17.928604 245.485245 0 108 255 
271.644897 13.071396 175.285492 0 11 255 
179.644897 -49.928604 153.185577 0 26 255 
249.644897 0.071396 163.585541 0 0 233 
274.644897 -28.928604 151.885574 0 71 255 
161.644897 -60.928604 186.985443 255 4 0 
186.644897 -33.928604 232.485291 255 4 0 
291.644897 -13.928604 216.885345 255 8 0 
180.644897 -64.928604 209.085373 0 26 255 
259.644897 -49.928604 159.685547 210 0 23 
292.644897 15.071396 228.585297 0 0 243 
244.644897 -39.928604 203.885391 255 22 0 
279.644897 -27.928604 231.185303 255 15 0 
217.644897 -70.928604 238.985260 255 2 0 
274.644897 -43.928604 159.685547 0 0 133 
246.644897 -83.928604 205.185394 0 115 255 
298.644897 -29.928604 193.485428 170 0 43 
229.644897 -55.928604 232.485291 50 0 103 
252.644897 -1.928604 155.785553 0 39 255 
239.644897 -69.928604 197.385406 10 0 123 
253.644897 -25.928604 261.085205 0 4 255 
253.644897 -11.928604 222.085327 70 0 93 
253.644897 -1.928604 255.885208 0 0 163 
281.644897 -21.928604 219.485336 0 64 255 
274.644897 -19.928604 150.585571 0 39 255 
242.644897 -64.928604 163.585541 70 0 93 
198.644897 -53.928604 189.585449 255 22 0 
277.644897 -4.928604 150.585571 0 104 255 
256.644897 12.071396 248.085236 0 28 255 
204.644897 -17.928604 231.185303 0 15 255 
226.644897 -17.928604 137.585632 170 0 43 
263.644897 -69.928604 210.385376 255 2 0 
231.644897 -56.928604 238.985260 0 0 163 
242.644897 -18.928604 224.685318 0 17 255 
264.644897 -72.928604 223.385315 0 159 255 
210.644897 -40.928604 266.285156 0 211 255 
234.644897 -44.928604 185.685455 0 28 255 
250.644897 -14.928604 176.585480 210 0 23 
276.644897 -33.928604 224.685318 70 0 93 
238.644897 -33.928604 175.285492 255 2 0 
203.644897 -44.928604 218.185333 0 0 133 
230.644897 -19.928604 190.885437 0 0 213 
177.644897 -50.928604 180.485474 255 4 0 
147.644897 -30.928604 192.185425 230 0 13 
248.644897 -72.928604 199.985413 0 28 255 
201.644897 -81.928604 218.185333 0 0 193 
192.644897 -5.928604 194.785431 0 57 255 
263.644897 -51.928604 160.985535 0 8 255 
255.644897 22.071396 172.685501 0 26 255 
201.644897 -11.928604 211.685364 0 148 255 
259.644897 -59.928604 250.685226 0 0 183 
246.644897 29.071396 225.985321 0 202 255 
244.644897 36.071396 189.585449 0 77 255 
249.644897 -17.928604 137.585632 0 28 255 
264.644897 38.071396 160.985535 0 57 255 
261.644897 -42.928604 246.785248 0 2 255 
205.644897 -47.928604 258.485199 0 2 255 
161.644897 -26.928604 155.785553 0 84 255 
225.073471 -35.500034 268.328033 0 179 255 
255.644897 -17.928604 137.585632 0 39 255 
215.644897 -8.928604 157.085556 210 0 23 
280.644897 1.071396 228.585297 0 57 255 
227.644897 -77.928604 170.085510 0 157 255 
284.644897 26.071396 184.385468 0 11 255 
303.644897 1.071396 190.885437 0 0 213 
233.644897 -76.928604 224.685318 210 0 23 
158.644897 -43.928604 215.585358 0 0 133 
244.644897 -30.928604 206.485382 255 33 0 
155.644897 -27.928604 183.085464 255 26 0 
182.644897 -24.928604 240.285263 0 11 255 
287.644897 -38.928604 202.585388 0 42 255 
206.644897 -78.928604 181.785461 0 0 133 
293.644897 -15.928604 199.985413 0 17 255 
269.644897 37.071396 173.985504 0 59 255 
270.644897 -34.928604 205.185394 255 15 0 
259.644897 -76.928604 199.985413 0 46 255 
153.644897 -16.928604 186.985443 0 8 255 
254.644897 -48.928604 150.585571 0 0 213 
166.644897 -45.928604 160.985535 170 0 43 
248.644897 -8.928604 254.585205 255 15 0 
177.644897 -31.928604 180.485474 255 35 0 
197.644897 -13.928604 184.385468 0 17 255 
171.644897 -11.928604 179.185486 0 86 255 
148.644897 -41.928604 184.385468 255 33 0 
272.644897 -48.928604 164.885529 0 0 243 
163.644897 -27.928604 159.685547 0 64 255 
178.644897 -34.928604 237.685272 255 2 0 
165.644897 -6.928604 202.585388 0 42 255 
244.644897 -26.928604 257.185211 255 8 0 
189.644897 -69.928604 199.985413 0 4 255 
153.644897 -47.928604 237.685272 0 15 255 
285.644897 2.071396 202.585388 0 102 255 
230.644897 -16.928604 137.585632 130 0 63 
205.644897 -51.928604 173.985504 230 0 13 
148.644897 -42.928604 181.785461 70 0 93 
242.644897 -56.928604 248.085236 0 26 255 
249.644897 -76.928604 202.585388 0 111 255 
239.644897 -42.928604 193.485428 255 35 0 
198.644897 -31.928604 185.685455 255 35 0 
193.644897 -35.928604 224.685318 255 15 0 
163.644897 -29.928604 236.385284 255 15 0 
298.644897 -11.928604 192.185425 0 77 255 
281.644897 13.071396 163.585541 0 46 255 
232.644897 -6.928604 160.985535 0 35 255 
149.644897 -28.928604 236.385284 255 15 0 
234.644897 -47.928604 183.085464 255 11 0 
267.644897 -50.928604 218.185333 255 17 0 
223.644897 -32.928604 259.785187 0 22 255 
259.644897 -66.928604 186.985443 70 0 93 
193.644897 -28.928604 255.885208 0 46 255 
237.644897 8.071396 233.785278 0 39 255 
231.644897 -76.928604 222.085327 110 0 73 
207.644897 -46.928604 193.485428 0 79 255 
208.644897 -16.928604 228.585297 10 0 123 
251.644897 -11.928604 164.885529 255 22 0 
239.644897 -42.928604 166.185516 255 15 0 
235.644897 -38.928604 209.085373 0 15 255 
212.644897 -58.928604 159.685547 0 39 255 
142.644897 -36.928604 175.285492 0 2 255 
269.216339 37.642826 233.228149 0 222 255 
269.644897 -39.928604 199.985413 0 4 255 
265.644897 -41.928604 198.685410 0 0 193 
146.644897 -44.928604 232.485291 0 146 255 
225.644897 5.071396 207.785370 0 0 183 
206.644897 14.071396 176.585480 0 39 255 
272.644897 -38.928604 181.785461 130 0 63 
294.644897 5.071396 232.485291 0 48 255 
255.644897 22.071396 238.985260 0 0 213 
230.644897 -63.928604 171.385498 130 0 63 
203.644897 -32.928604 155.785553 170 0 43 
206.644897 2.071396 176.585480 210 0 23 
272.644897 10.071396 220.785339 0 4 255 
275.644897 -6.928604 203.885391 0 139 255 
247.644897 -26.928604 206.485382 255 4 0 
252.073471 44.499966 207.042526 0 33 255 
240.644897 3.071396 158.385559 0 48 255 
251.644897 -48.928604 153.185577 255 2 0 
232.644897 -52.928604 170.085510 230 0 13 
270.644897 14.071396 223.385315 110 0 73 
269.644897 -30.928604 233.785278 230 0 13 
256.644897 -17.928604 194.785431 0 33 255 
223.644897 -65.928604 179.185486 0 53 255 
250.644897 18.071396 238.985260 0 2 255 
220.644897 -36.928604 189.585449 170 0 43 
262.644897 29.071396 218.185333 0 0 233 
183.644897 -48.928604 214.285355 70 0 93 
267.644897 5.071396 215.585358 230 0 13 
208.644897 -22.928604 189.585449 170 0 43 
244.644897 -53.928604 155.785553 0 11 255 
193.644897 -6.928604 160.985535 0 0 193 
211.073471 18.499968 164.328384 0 202 255 
214.644897 -46.928604 231.185303 210 0 23 
137.644897 -29.928604 188.285446 0 0 243 
206.644897 -18.928604 214.285355 130 0 63 
274.644897 -2.928604 250.685226 0 0 243 
208.073471 10.642824 261.828033 0 77 255 
184.644897 -75.928604 224.685318 0 22 255 
236.644897 -15.928604 137.585632 0 39 255 
208.644897 -71.928604 235.085281 0 0 243 
233.644897 -20.928604 240.285263 255 15 0 
161.644897 -43.928604 240.285263 0 0 183 
210.644897 1.071396 177.885483 130 0 63 
205.644897 -51.928604 253.285217 0 26 255 
227.644897 -52.928604 235.085281 210 0 23 
176.644897 -59.928604 176.585480 0 0 153 
219.644897 -67.928604 172.685501 170 0 43 
145.644897 -43.928604 215.585358 0 15 255 
201.644897 14.071396 179.185486 0 0 233 
276.644897 29.071396 194.785431 0 135 255 
231.644897 -63.928604 158.385559 110 0 73 
169.644897 -18.928604 248.085236 110 0 73 
160.644897 -40.928604 236.385284 255 2 0 
218.644897 -3.928604 192.185425 10 0 123 
255.644897 -3.928604 197.385406 0 0 153 
207.644897 -63.928604 224.685318 255 4 0 
238.644897 -37.928604 149.285583 255 15 0 
216.644897 -35.928604 268.885162 0 104 255 
196.644897 -50.928604 214.285355 255 11 0 
248.644897 6.071396 144.085602 0 184 255 
177.644897 -8.928604 172.685501 0 73 255 
199.644897 -34.928604 223.385315 130 0 63 
265.644897 -11.928604 210.385376 0 15 255 
246.644897 -0.928604 222.085327 0 4 255 
262.644897 26.071396 231.185303 0 59 255 
215.644897 -54.928604 249.385223 210 0 23 
257.644897 -26.928604 218.185333 255 17 0 
249.644897 -37.928604 206.485382 255 33 0 
151.644897 -23.928604 155.785553 0 208 255 
205.644897 -22.928604 158.385559 0 57 255 
229.644897 -60.928604 196.085419 0 128 255 
253.644897 -46.928604 193.485428 0 0 243 
254.644897 8.071396 192.185425 0 0 213 
262.644897 -32.928604 245.485245 130 0 63 
196.644897 -37.928604 142.785614 0 126 255 
147.644897 -19.928604 235.085281 0 8 255 
255.644897 2.071396 155.785553 0 4 255 
263.644897 -38.928604 147.985596 0 35 255 
193.644897 19.071396 172.685501 0 33 255 
190.644897 -10.928604 171.385498 0 95 255 
231.644897 -34.928604 202.585388 0 159 255 
204.644897 -4.928604 251.985229 0 33 255 
287.644897 3.071396 162.285538 0 39 255 
295.644897 -33.928604 225.985321 50 0 103 
269.644897 17.071396 193.485428 0 46 255 
246.644897 -41.928604 223.385315 255 11 0 
208.644897 -41.928604 255.885208 0 97 255 
216.644897 -9.928604 248.085236 0 0 213 
260.644897 -28.928604 259.785187 0 0 163 
175.644897 -37.928604 233.785278 255 11 0 
250.644897 28.071396 166.185516 0 64 255 
243.644897 19.071396 177.885483 110 0 73 
213.644897 -41.928604 227.285309 255 8 0 
182.644897 -33.928604 175.285492 0 15 255 
233.644897 -14.928604 231.185303 170 0 43 
247.644897 34.071396 197.385406 50 0 103 
273.644897 34.071396 233.785278 0 95 255 
269.644897 29.071396 177.885483 0 0 213 
231.644897 -72.928604 163.585541 170 0 43 
269.644897 -8.928604 172.685501 0 22 255 
286.644897 -54.928604 175.285492 0 2 255 
250.644897 -55.928604 223.385315 255 17 0 
265.644897 13.071396 236.385284 0 39 255 
244.644897 -56.928604 150.585571 0 108 255 
218.644897 -5.928604 249.385223 170 0 43 
251.644897 9.071396 146.685593 0 64 255 
310.644897 -3.928604 177.885483 0 0 193 
304.644897 -14.928604 222.085327 210 0 23 
212.644897 4.071396 184.385468 0 84 255 
276.644897 -2.928604 172.685501 0 0 163 
296.644897 -37.928604 218.185333 255 15 0 
281.644897 -20.928604 186.985443 0 95 255 
302.644897 -21.928604 205.185394 0 8 255 
270.644897 -14.928604 205.185394 0 26 255 
182.644897 12.071396 155.785553 0 0 163 
235.644897 -81.928604 231.185303 0 0 153 
279.644897 19.071396 171.385498 0 0 243 
193.644897 -58.928604 235.085281 0 0 193 
256.644897 8.071396 210.385376 0 0 183 
279.644897 -26.928604 227.285309 170 0 43 
237.644897 -78.928604 232.485291 0 2 255 
171.216324 -63.357174 165.628387 0 128 255 
265.644897 -46.928604 225.985321 255 26 0 
187.216324 16.499968 241.028122 0 122 255 
213.644897 -29.928604 268.885162 0 215 255 
280.644897 -1.928604 189.585449 0 0 133 
233.644897 -59.928604 145.385590 0 0 133 
305.644897 -2.928604 192.185425 0 73 255 
304.644897 -29.928604 207.785370 0 139 255 
259.644897 -47.928604 248.085236 0 59 255 
255.644897 -46.928604 203.885391 0 42 255 
237.644897 -82.928604 185.685455 0 8 255 
214.644897 -0.928604 180.485474 10 0 123 
184.644897 -40.928604 214.285355 130 0 63 
282.644897 -70.928604 210.385376 0 157 255 
214.644897 -67.928604 232.485291 0 33 255 
201.644897 8.071396 220.785339 0 22 255 
169.644897 -35.928604 180.485474 255 28 0 
187.644897 -12.928604 227.285309 0 22 255 
288.644897 -9.928604 218.185333 255 11 0 
177.644897 -11.928604 238.985260 0 91 255 
145.644897 -41.928604 189.585449 255 8 0 
279.644897 35.071396 194.785431 0 59 255 
247.644897 9.071396 151.885574 0 79 255 
199.644897 -18.928604 225.985321 0 0 183 
188.644897 16.071396 250.685226 0 35 255 
282.644897 9.071396 167.485519 0 22 255 
289.644897 -28.928604 180.485474 130 0 63 
266.644897 -12.928604 255.885208 0 22 255 
259.644897 0.071396 264.985168 0 222 255 
212.644897 -36.928604 261.085205 0 4 255 
270.644897 -27.928604 212.985352 210 0 23 
171.644897 -44.928604 167.485519 0 15 255 
195.644897 -9.928604 188.285446 0 77 255 
191.644897 -35.928604 223.385315 170 0 43 
168.644897 -27.928604 154.485565 0 15 255 
261.644897 -10.928604 162.285538 210 0 23 
264.644897 15.071396 153.185577 0 28 255 
187.644897 -42.928604 244.185242 255 2 0 
271.644897 -48.928604 201.285400 0 111 255 
241.644897 -49.928604 144.085602 0 0 153 
282.644897 6.071396 166.185516 0 102 255 
178.644897 -14.928604 203.885391 0 91 255 
242.644897 -0.928604 205.185394 50 0 103 
270.644897 -39.928604 157.085556 170 0 43 
265.644897 -24.928604 249.385223 255 2 0 
296.644897 -20.928604 235.085281 0 0 213 
294.644897 -16.928604 233.785278 0 0 213 
262.644897 -53.928604 245.485245 255 8 0 
196.644897 -38.928604 215.585358 0 0 183 
244.644897 -50.928604 253.285217 0 0 163 
266.644897 -29.928604 181.785461 255 17 0 
302.644897 -17.928604 180.485474 110 0 73 
295.644897 1.071396 207.785370 70 0 93 
277.644897 -11.928604 241.585266 255 15 0 
231.644897 -22.928604 223.385315 210 0 23 
214.644897 2.071396 151.885574 0 4 255 
157.644897 -39.928604 201.285400 0 59 255 
239.644897 15.071396 177.885483 0 0 133 
248.644897 -73.928604 181.785461 0 0 183 
164.644897 -47.928604 218.185333 255 2 0 
224.644897 -20.928604 163.585541 0 22 255 
258.644897 6.071396 153.185577 0 35 255 
189.644897 -14.928604 246.785248 0 0 243 
283.644897 31.071396 170.085510 0 166 255 
236.644897 -16.928604 194.785431 10 0 123 
257.644897 -22.928604 219.485336 130 0 63 
239.644897 20.071396 194.785431 0 0 243 
208.644897 -8.928604 190.885437 0 139 255 
244.644897 -56.928604 214.285355 255 8 0 
284.644897 -54.928604 164.885529 0 148 255 
198.644897 16.071396 151.885574 0 159 255 
255.644897 -21.928604 164.885529 255 4 0 
205.644897 -10.928604 222.085327 0 15 255 
179.644897 -57.928604 246.785248 50 0 103 
198.644897 -44.928604 223.385315 255 22 0 
193.644897 -14.928604 192.185425 0 0 133 
273.644897 -48.928604 153.185577 10 0 123 
188.644897 -17.928604 245.485245 0 166 255 
174.644897 -16.928604 222.085327 0 39 255 
271.644897 -63.928604 196.085419 0 0 153 
153.644897 -28.928604 233.785278 255 17 0 
264.644897 -20.928604 160.985535 255 11 0 
258.216339 34.642826 222.828186 0 177 255 
266.644897 -50.928604 235.085281 0 0 163 
209.644897 -21.928604 241.585266 0 33 255 
282.644897 -3.928604 186.985443 0 71 255 
225.644897 -58.928604 162.285538 70 0 93 
246.644897 -47.928604 193.485428 255 28 0 
270.644897 -26.928604 205.185394 0 135 255 
222.644897 -31.928604 184.385468 110 0 73 
